# .PCD v0.7 - Point Cloud Data file format
VERSION 0.7
FIELDS x y z rgb
SIZE 4 4 4 4
TYPE F F F U
COUNT 1 1 1 1
WIDTH 502
HEIGHT 1
VIEWPOINT 0 0 0 1 0 0 0
POINTS 502
DATA ascii
-21.502558 20.889286 -3.220603 4278190080
-22.245323 20.568398 -1.222682 4278190080
-22.65295 20.941919 -3.522325 4278190080
-23.238405 20.441143 -2.8739059 4278190080
-22.859732 18.584948 -0.97587299 4278190080
-22.9063 19.623209 -2.0924311 4278190080
-22.625044 18.672523 -1.4529361 4278190080
-23.216162 19.690279 -1.451538 4278190080
-23.826231 19.850168 -1.9997391 4278190080
-25.181511 19.090857 -3.7909369 4278190080
-22.412743 20.129236 -2.7609949 4278190080
-24.353304 19.650496 -3.51493 4278190080
-24.561663 19.99736 -4.0691128 4278190080
-24.123907 20.019747 -3.2744319 4278190080
-23.382376 19.622541 -3.661993 4278190080
-19.663767 17.86212 -0.55831403 4278190080
-24.613598 19.14654 -4.3082528 4278190080
-25.777761 19.681368 -4.1320891 4278190080
-25.313848 19.445389 -4.833632 4278190080
-26.465551 18.623466 -3.37221 4278190080
-19.843878 17.603521 0.090489998 4278190080
-25.779768 18.680172 -4.2515831 4278190080
-20.632818 18.799273 -0.129399 4278190080
-26.87163 18.887194 -3.199317 4278190080
-20.015121 17.180439 0.241322 4278190080
-23.422873 19.487579 -3.290184 4278190080
-26.496809 19.298462 -4.4653058 4278190080
-22.041813 19.564243 -1.630843 4278190080
-22.473808 18.535412 -0.59351802 4278190080
-20.870872 20.234903 -2.2880599 4278190080
-22.135416 19.610699 -0.70323902 4278190080
-20.597702 19.445631 -1.757398 4278190080
-21.171268 17.858406 -1.741397 4278190080
-21.137003 19.327747 -1.645811 4278190080
-21.724724 16.625294 -1.355059 4278190080
-21.878948 17.519672 -1.7033859 4278190080
-21.210695 15.4481 -0.078630999 4278190080
-21.94286 20.178749 -0.71579099 4278190080
-21.854746 16.662945 -0.792943 4278190080
-21.029015 15.965989 0.20729101 4278190080
-21.700783 17.395641 -0.012397 4278190080
-20.219931 12.877353 -0.194645 4278190080
-20.407875 13.562682 -0.76915699 4278190080
-19.475168 13.15614 0.47029001 4278190080
-18.901487 15.773994 -1.194225 4278190080
-19.103807 15.009138 0.56461 4278190080
-19.269329 14.225881 -1.54371 4278190080
-19.28931 16.530178 0.31725001 4278190080
-18.521006 14.527328 0.64559299 4278190080
-18.465391 15.899684 -0.55901599 4278190080
-17.205574 13.548617 -0.411553 4278190080
-21.312834 20.58569 -3.119396 4278190080
-17.569475 12.219562 0.97383302 4278190080
-16.621849 8.8948975 -2.726944 4278190080
-18.143393 10.453061 -2.0529211 4278190080
-14.247332 8.7760925 1.286736 4278190080
-13.075191 8.50875 0.25587201 4278190080
-12.258654 6.310173 1.809535 4278190080
-13.010727 7.8387671 1.193821 4278190080
-18.153355 9.8636513 -2.5974629 4278190080
-19.513504 10.099821 -0.105622 4278190080
-18.69335 9.823637 -2.1607921 4278190080
-14.674619 6.57265 2.893512 4278190080
-15.741963 9.7531042 1.383729 4278190080
-17.851295 5.217113 -4.409502 4278190080
-18.651485 8.0655403 -3.069345 4278190080
-16.28754 9.1005096 1.898048 4278190080
-17.134951 6.8743529 -3.9376371 4278190080
-17.90233 7.658412 -3.609236 4278190080
-15.392498 7.7923069 2.516686 4278190080
-10.074893 5.1842022 0.128326 4278190080
-12.999218 6.8771319 -2.2166221 4278190080
-12.455008 7.705194 -0.312971 4278190080
-14.80428 7.6199198 -3.046258 4278190080
-16.095095 -1.035972 -3.727834 4278190080
-14.487625 -4.9585671 -1.028883 4278190080
-14.094109 -1.7204469 -4.6560798 4278190080
-15.970606 -3.871284 -0.694058 4278190080
-15.857903 -3.302269 0.114633 4278190080
-15.838698 -2.9808469 -2.3536601 4278190080
-14.794964 -4.71418 -0.40610299 4278190080
-18.589811 1.994645 1.51195 4278190080
-16.479322 0.096891999 2.777292 4278190080
-17.08271 1.569261 2.9009881 4278190080
-19.235638 4.1903291 1.327153 4278190080
-16.609529 5.7282128 3.0956221 4278190080
-18.354773 5.4244499 2.2821829 4278190080
-17.558558 3.2239399 2.836482 4278190080
-18.476944 6.7284598 2.0272939 4278190080
-19.805321 7.4199762 0.18698099 4278190080
-19.652601 5.762547 0.90846401 4278190080
-17.282946 7.810832 2.2738121 4278190080
-18.255302 10.101911 0.64445603 4278190080
-16.481833 11.155992 0.74703598 4278190080
-17.777912 8.8036642 1.522522 4278190080
-17.543009 -1.218374 0.29087201 4278190080
-18.775675 -0.53844702 -0.82132602 4278190080
-16.874582 10.606725 1.244208 4278190080
-17.511086 -0.90395701 -2.528111 4278190080
-17.618399 -2.194958 -0.78465199 4278190080
-14.517342 9.7731466 0.26898199 4278190080
-18.865049 6.322794 -3.4510131 4278190080
-20.42247 7.0355682 -0.89214802 4278190080
-19.60618 6.817071 -2.446049 4278190080
-14.071812 9.457366 -0.24678101 4278190080
-13.929176 8.4016523 -1.801319 4278190080
-15.408229 10.635882 -0.212924 4278190080
-15.341577 10.203259 -0.98301601 4278190080
-16.426186 11.787844 0.11159 4278190080
-15.357409 9.0672684 -2.3059211 4278190080
-16.3759 1.973583 -4.9285111 4278190080
-15.740653 1.823705 -5.0973439 4278190080
-15.549212 0.39701 -4.9017282 4278190080
-15.373064 5.7167239 -4.024106 4278190080
-14.376652 3.9639361 -4.4405112 4278190080
-11.262397 6.0998988 -0.74119198 4278190080
-18.599972 11.909778 -1.784778 4278190080
-18.993153 10.240971 -1.238611 4278190080
-19.144815 11.717253 -1.719772 4278190080
-19.594788 1.223536 -0.916969 4278190080
-19.714798 5.4154639 -2.590657 4278190080
-19.765163 13.702233 -1.694344 4278190080
-17.449015 12.978622 -0.81272101 4278190080
-20.179722 3.046926 -1.278872 4278190080
-20.201115 4.552424 -0.03531 4278190080
-20.509001 5.0013928 -1.163548 4278190080
-20.473867 3.805429 -0.80259901 4278190080
-18.257912 2.0725541 -3.5815699 4278190080
-20.627117 6.1601248 -0.478057 4278190080
-18.307234 0.193214 -2.5041151 4278190080
-18.323502 3.3425541 -3.9160039 4278190080
-19.367132 1.788415 -2.1416521 4278190080
-17.171495 0.84884501 -3.9986539 4278190080
-19.715212 3.7602811 -2.4255099 4278190080
-19.547344 1.639954 -0.16354799 4278190080
-15.692439 3.6877849 -4.7804542 4278190080
-17.069851 5.6967559 -4.397655 4278190080
-17.429953 4.2017221 -4.6566749 4278190080
-16.292372 11.528623 -0.419314 4278190080
-13.525292 1.92896 4.0341482 4278190080
-15.955743 3.845166 3.4718521 4278190080
-15.12775 1.4339 3.822084 4278190080
-13.568192 5.1259251 2.905638 4278190080
-12.784799 3.7814889 3.286772 4278190080
-11.754502 4.2649341 2.7289031 4278190080
-13.977303 -3.894146 1.878703 4278190080
-16.102432 -1.838509 1.696287 4278190080
-14.393828 -2.3549969 2.946264 4278190080
-15.199351 -0.54075801 3.36571 4278190080
-13.039612 -2.4615691 3.6610439 4278190080
-12.334517 -1.6127419 4.1935229 4278190080
-17.564207 -0.034191001 1.547361 4278190080
-20.292105 8.147212 -0.44684401 4278190080
24.777786 -2.849308 -0.31466201 4278190080
23.447708 -4.0592599 -0.65165699 4278190080
23.666754 -0.83635402 -2.5620871 4278190080
22.924372 1.2194951 4.2004428 4278190080
22.461315 3.6304491 1.635625 4278190080
23.316141 2.8971009 2.7923529 4278190080
24.963348 2.037137 3.1184831 4278190080
21.280718 3.68399 2.4971521 4278190080
22.306519 0.061071999 4.6617479 4278190080
19.009903 2.752676 2.980335 4278190080
17.98559 1.675579 -1.000416 4278190080
17.806581 2.086153 0.19541299 4278190080
17.229527 0.47631899 -2.1213701 4278190080
21.285452 2.6901259 3.1028931 4278190080
14.79794 1.31041 1.834077 4278190080
18.877384 1.831787 3.450953 4278190080
17.97209 0.30766901 4.4997101 4278190080
17.327208 2.3851409 1.986984 4278190080
16.839453 1.7104549 3.0298591 4278190080
15.034425 -0.875745 4.5345778 4278190080
16.083963 1.711722 2.661335 4278190080
19.337873 0.92066997 4.4864459 4278190080
18.232349 -1.837219 5.3248248 4278190080
20.452314 -3.0914509 4.709775 4278190080
20.629343 -5.7296309 3.034225 4278190080
18.941132 -0.69460303 5.242775 4278190080
21.681673 -3.758003 3.988611 4278190080
21.016294 -0.87671602 4.8927231 4278190080
22.605507 -5.1220899 1.776843 4278190080
23.353785 -1.747313 3.9464159 4278190080
19.803001 -4.8748469 4.4324932 4278190080
23.744169 -3.556989 2.3044391 4278190080
24.828514 -3.369122 0.79825997 4278190080
24.204708 -3.75228 1.531459 4278190080
25.789961 -1.3908499 0.35242999 4278190080
23.560844 -0.95475101 4.0504322 4278190080
23.995739 -1.89737 3.464859 4278190080
18.655685 -7.8723779 1.316812 4278190080
20.387312 -6.537189 2.207274 4278190080
22.126436 -5.7650309 0.12614 4278190080
22.521301 -5.6810741 0.91275603 4278190080
19.596476 3.2618639 2.3399999 4278190080
25.655046 0.17231201 -0.62461901 4278190080
14.139442 -9.0820169 2.2835979 4278190080
15.186381 -9.3223543 1.026244 4278190080
14.83215 -8.3353729 3.275569 4278190080
14.486629 -7.7975392 3.96979 4278190080
17.377325 -6.4170909 4.133708 4278190080
13.85191 -6.7314172 4.5669298 4278190080
14.44893 -7.03124 4.4222312 4278190080
16.438452 -8.7995443 0.156936 4278190080
17.661318 -7.7760358 2.5304639 4278190080
18.139061 -6.945446 3.4781921 4278190080
19.425905 -7.4221768 -0.069784001 4278190080
21.11211 -6.3022909 -0.62941098 4278190080
19.2533 -7.0109658 -1.399953 4278190080
19.88722 -7.117033 0.32170501 4278190080
19.994795 0.46060899 -2.68311 4278190080
20.169662 1.677354 -1.763466 4278190080
19.897169 2.4598801 -0.462217 4278190080
21.39394 0.96066201 -2.3072441 4278190080
22.028011 1.989985 -1.384737 4278190080
21.423349 2.969846 0.033606999 4278190080
24.226204 0.190237 -2.0857389 4278190080
25.348742 0.18574201 2.401298 4278190080
26.619078 -0.62553298 1.0502 4278190080
23.811245 2.9414439 0.25016901 4278190080
27.3454 0.57029301 0.36536899 4278190080
27.626255 0.372435 1.314617 4278190080
25.36264 1.778511 2.937078 4278190080
26.068857 2.447916 3.0011401 4278190080
24.906103 2.931675 0.20033699 4278190080
26.471632 4.4527588 1.6263959 4278190080
27.510456 3.4988711 1.91469 4278190080
26.992266 3.832634 2.172996 4278190080
27.27158 2.5044391 2.54726 4278190080
27.577118 1.628288 2.214366 4278190080
27.948048 2.546838 1.885165 4278190080
26.364418 3.8376169 0.433781 4278190080
26.903559 1.159587 2.3442359 4278190080
25.439058 4.3763828 1.58228 4278190080
27.549257 3.4851589 0.50912797 4278190080
26.820557 4.3021789 1.591839 4278190080
28.246025 1.3724591 0.96902102 4278190080
15.999938 -3.485168 5.4967618 4278190080
14.704507 -4.9523511 5.259974 4278190080
18.689291 -3.921247 4.995575 4278190080
16.816994 -5.4777689 4.467464 4278190080
14.590431 -2.570843 5.4236369 4278190080
15.104896 -9.085413 -0.88438302 4278190080
12.426758 -10.061494 0.25479501 4278190080
15.151439 -9.2348347 0.101596 4278190080
16.765131 -5.6810498 -3.740258 4278190080
15.851825 -7.083909 -2.9846261 4278190080
14.643806 -8.6791267 -1.694487 4278190080
17.190145 -7.8350921 -1.632181 4278190080
16.651981 -8.4823294 -0.83825397 4278190080
26.322157 0.30386499 -0.112879 4278190080
25.302214 1.134534 -1.132946 4278190080
27.223757 1.589051 -0.394494 4278190080
26.801252 2.6076751 -0.59856498 4278190080
27.849674 2.432879 -0.070912004 4278190080
20.320837 3.1641071 1.3750041 4278190080
25.792978 4.102499 2.231935 4278190080
24.257294 4.10531 1.831574 4278190080
23.147135 3.579035 2.4915929 4278190080
21.1896 1.5515471 4.0998368 4278190080
25.771706 -1.76599 1.0670069 4278190080
15.936842 -4.9909301 -4.2301469 4278190080
17.539379 -3.0906141 -3.8738999 4278190080
17.978786 -0.58752698 -3.090771 4278190080
15.943091 -0.924227 -2.8338411 4278190080
19.365534 -6.2800131 -2.1824701 4278190080
19.084101 -4.730607 -3.5109761 4278190080
21.115736 -4.1522379 -2.884228 4278190080
19.701397 -3.158854 -3.9523859 4278190080
22.744532 -4.7002301 -1.069599 4278190080
19.816061 -0.77748102 -3.260391 4278190080
20.996447 -2.4718831 -3.7025471 4278190080
21.403116 -5.3601971 -1.670995 4278190080
22.87009 -4.9006109 -0.198816 4278190080
22.592802 -0.496714 -2.893363 4278190080
23.032608 -3.786674 -1.725944 4278190080
24.899006 -1.501323 -1.093488 4278190080
23.753109 -2.4409699 -1.928511 4278190080
22.544577 -2.1743879 -3.0254769 4278190080
20.766542 0.52503502 4.739295 4278190080
-11.171635 -4.9596729 -3.9046161 4278190080
-11.887159 -2.120384 -5.2443352 4278190080
-9.8242245 -3.4180779 -5.1972761 4278190080
-8.8092775 -4.7560382 -5.077045 4278190080
-9.1127853 -1.009288 -4.6618509 4278190080
-5.4568391 -2.7048581 -4.4093008 4278190080
-5.710269 -1.366719 -3.949321 4278190080
-9.0193348 -7.679143 1.112812 4278190080
-7.616848 1.0588 -3.0338621 4278190080
-11.615424 -6.3044562 0.89716297 4278190080
-9.6117544 -6.4636812 2.5217891 4278190080
-6.1804399 -8.8529902 1.414712 4278190080
-6.529469 -7.0091672 3.6293001 4278190080
-6.850419 -5.8189831 4.2006278 4278190080
-14.128334 -5.3068581 -0.906304 4278190080
-13.817648 -4.9470301 -2.0132301 4278190080
-13.384171 -3.5772021 -3.766021 4278190080
-12.988132 -5.2019138 -2.5197451 4278190080
-12.306833 -3.123091 -4.75669 4278190080
-12.020636 -2.7812929 -5.0729542 4278190080
-7.579133 -8.7295866 -1.582705 4278190080
-7.602715 -8.8478622 -1.158967 4278190080
-8.4661694 -5.5848789 -4.5820198 4278190080
-9.6522779 -7.2896781 -2.366787 4278190080
-6.796783 -7.6243119 -3.354825 4278190080
-7.8315859 -8.8562307 -0.019317999 4278190080
-6.2923079 -9.143693 -1.665298 4278190080
-6.8518152 -6.050777 -4.7729192 4278190080
-10.336648 0.91661698 -4.4375501 4278190080
-8.345089 0.223184 -4.0434351 4278190080
-10.234594 2.5323341 -3.590889 4278190080
-7.248076 2.008286 -1.603741 4278190080
-9.5129232 3.157598 -2.4823091 4278190080
-10.154906 4.4677062 -1.377863 4278190080
-7.000885 1.3580101 -2.289289 4278190080
-7.7089262 3.1065149 0.049424998 4278190080
-6.2087302 2.4524789 0.917494 4278190080
-11.041907 -7.1892152 -1.253033 4278190080
-12.080678 -6.7751698 -0.350319 4278190080
-10.30981 -7.7931132 -0.25313601 4278190080
-10.181893 0.99909902 4.1596651 4278190080
-7.3906012 -0.61385202 4.263392 4278190080
-10.137952 2.721169 3.0418849 4278190080
-7.422586 0.91406399 3.2207091 4278190080
-10.380574 4.717226 1.670969 4278190080
-9.7971125 4.8790441 0.94555199 4278190080
-7.9945478 2.8368189 1.927878 4278190080
-10.322364 -4.2484422 3.8758371 4278190080
-9.2896318 -5.7306242 3.4546559 4278190080
-8.9791164 -3.8567641 4.3590031 4278190080
-8.4639368 -1.176531 4.5333152 4278190080
-5.8023119 -5.1531138 4.659286 4278190080
-11.827662 -0.65004498 4.3364401 4278190080
-9.2232904 -2.262769 4.520298 4278190080
-7.0100341 -3.1058481 4.7445002 4278190080
-11.645502 1.174306 4.2001228 4278190080
-5.1676912 -2.0386939 4.5818129 4278190080
-13.731484 1.0029221 -5.0453539 4278190080
-11.51569 1.588167 -4.5627332 4278190080
-11.571074 4.0287838 -3.4240291 4278190080
-12.833426 4.207015 -4.0266662 4278190080
-11.496436 -5.1578031 2.652868 4278190080
-12.206985 -3.9032609 3.260648 4278190080
-4.526731 -9.9138269 -1.235301 4278190080
7.361177 -3.964761 5.3359022 4278190080
7.2871871 -0.60173899 2.5991869 4278190080
7.5877342 -0.29256999 1.582334 4278190080
5.821928 -0.39969099 1.547279 4278190080
4.2315788 -0.76239097 2.568975 4278190080
4.6609468 -2.6283791 4.287611 4278190080
3.9200251 -0.569462 1.003148 4278190080
5.5947251 -4.1279511 5.3464808 4278190080
1.726699 -0.21431001 1.2613029 4278190080
1.0622801 -0.462403 2.4798851 4278190080
4.13977 -5.7467308 5.383204 4278190080
-7.3016849 -4.7657862 -5.1020198 4278190080
-5.116199 -0.764431 -3.3938489 4278190080
3.142122 -5.6199932 -4.1819301 4278190080
3.9576769 -2.4174089 -2.5892379 4278190080
1.429606 -2.4624441 -2.9601049 4278190080
4.0652828 -3.4084251 -3.299072 4278190080
3.7775681 -1.649552 -1.581508 4278190080
3.846909 -4.6503782 -3.854635 4278190080
7.889081 -4.4914789 -3.6707251 4278190080
5.8936582 -3.3694329 -3.2402921 4278190080
7.2169018 -2.8151181 -2.8610239 4278190080
5.7725601 -2.350914 -2.3955359 4278190080
5.69801 -1.352946 -0.95403498 4278190080
-3.7075701 -6.24299 -4.981473 4278190080
-4.262464 -6.377418 -4.974968 4278190080
-2.171562 -8.0394926 -4.182054 4278190080
-1.536483 -9.9917402 -2.04846 4278190080
-4.8482742 -7.2696261 -4.3491988 4278190080
-1.8979599 -10.502374 0.213897 4278190080
-2.4096971 -9.3830299 -2.7729061 4278190080
0.19407 -9.7349834 -2.6218841 4278190080
-3.6387391 -9.0723677 -2.850661 4278190080
0.831361 -10.856469 -0.53274202 4278190080
0.90415001 -8.5291834 -3.959846 4278190080
-1.765957 -7.1535192 -4.8121982 4278190080
1.363404 -10.378442 -1.696726 4278190080
0.56529701 -6.9614501 -4.760181 4278190080
0.50057399 -7.4809008 -4.6342778 4278190080
13.303432 -0.177599 -1.068429 4278190080
15.248638 0.55815703 -0.97530597 4278190080
15.235539 0.961891 -0.023576999 4278190080
-4.1815062 -6.143105 4.6480169 4278190080
-4.4628201 -0.98182303 3.8389101 4278190080
-1.192884 -3.4735439 4.993073 4278190080
-3.608423 -4.8912749 4.9534879 4278190080
-5.808229 -2.969974 4.8151779 4278190080
1.5232151 -5.88728 5.271071 4278190080
-3.07076 0.39975199 2.250577 4278190080
-1.931132 -1.155145 3.4298489 4278190080
-2.9604089 -1.8482389 4.1272941 4278190080
-1.060501 -4.4352551 5.1197848 4278190080
0.59882998 -1.047017 -1.287573 4278190080
3.003885 -10.963014 -0.54757202 4278190080
2.9333241 -8.5584602 -3.9234049 4278190080
4.7388439 -10.909576 -0.878456 4278190080
6.2365479 -9.8365049 -2.3626809 4278190080
5.323339 -9.8083782 -2.4517031 4278190080
8.0144796 -10.315896 -1.400787 4278190080
5.555789 -11.071349 0.69867998 4278190080
4.330153 -7.379828 -4.5211148 4278190080
5.6614399 -8.4266825 -3.8095779 4278190080
5.6966839 -6.152998 -4.2160769 4278190080
7.8184891 -8.5209827 -3.4725931 4278190080
-6.4444761 -9.2940807 0.15237799 4278190080
-5.3463259 1.8677469 0.77472198 4278190080
-5.1050892 1.202929 2.1086869 4278190080
-5.0024452 -7.8764071 3.408968 4278190080
-2.7891791 -9.2654381 2.725518 4278190080
-2.2112889 -10.234328 1.039309 4278190080
-4.4261322 -9.5966663 1.182117 4278190080
-3.8999691 -7.6230321 3.9847291 4278190080
-2.0090899 -8.7614269 3.512888 4278190080
-0.51681501 -9.9121704 2.419147 4278190080
0.360901 -10.897032 0.40202099 4278190080
0.14566401 -9.6249886 2.97211 4278190080
-0.36987799 -8.3412971 4.3093672 4278190080
0.252083 -7.2474971 4.8933969 4278190080
-2.612803 0.63124698 1.63403 4278190080
-0.517425 0.226513 1.239326 4278190080
10.039048 -3.2623341 -3.3049409 4278190080
8.2764111 -0.80971098 0.043790001 4278190080
9.3603001 -2.3409891 -2.6560371 4278190080
7.0333281 -1.125234 -0.455717 4278190080
8.4505291 -1.502441 -1.455053 4278190080
12.08312 -6.1859822 -4.355011 4278190080
10.160886 -5.5606399 -4.030067 4278190080
11.554888 -4.4068551 -3.805151 4278190080
10.358742 -0.27436799 0.610982 4278190080
12.862787 -2.926837 -3.4115369 4278190080
10.7446 -0.92995799 -1.200259 4278190080
11.489901 -1.745268 -2.448844 4278190080
-4.3725901 0.28348699 -1.799443 4278190080
-6.2362852 -8.152606 2.6134501 4278190080
-5.1106811 0.97313797 -1.109519 4278190080
-2.3185639 -0.24972799 -1.164441 4278190080
-3.518223 0.97851801 0.81140101 4278190080
7.806181 -5.2787161 5.457994 4278190080
10.239208 -5.5600429 5.4429512 4278190080
9.7812347 -0.014151 1.7316051 4278190080
9.4008102 -2.1834321 4.3691392 4278190080
9.2185907 -0.176258 2.1919 4278190080
10.185354 -0.51801902 3.0038209 4278190080
12.770061 -4.187387 5.5267048 4278190080
9.7485209 -3.669152 5.3793969 4278190080
11.49335 -1.806825 4.4085689 4278190080
12.847086 -4.7652488 5.4710989 4278190080
7.940486 -10.805747 0.82941699 4278190080
10.389389 -10.4466 1.066251 4278190080
7.1883011 -8.8380795 4.211102 4278190080
8.3069658 -8.2243252 4.5982838 4278190080
8.2277651 -6.9108081 5.2118878 4278190080
8.0263939 -9.8096256 2.9916861 4278190080
10.773566 -10.471636 0.59535402 4278190080
12.438813 -10.105457 0.91216302 4278190080
10.651875 -8.5845461 4.1208181 4278190080
11.991061 -8.0952501 4.297904 4278190080
10.798726 -6.6411328 5.1744132 4278190080
11.927746 -9.1367149 3.2140579 4278190080
12.596515 -7.3472509 4.6513972 4278190080
12.258866 -6.2048192 5.1516571 4278190080
15.783909 -2.8691001 5.4944992 4278190080
12.868258 -8.0150652 -3.0797701 4278190080
2.043355 -10.199028 2.3243511 4278190080
3.073494 -9.8918715 3.0121059 4278190080
2.498811 -11.058824 0.56079102 4278190080
3.1288049 -9.2510643 3.83184 4278190080
2.9871981 -8.4532661 4.4809771 4278190080
5.278522 -8.7959185 4.3601122 4278190080
2.9699261 -7.165545 5.12922 4278190080
4.4645581 -10.602407 1.738279 4278190080
6.3952408 -7.0946259 5.205297 4278190080
6.1422238 -9.8015251 3.269088 4278190080
2.820246 -4.1312509 5.1924 4278190080
0.487479 -2.247771 4.1094851 4278190080
13.190463 -4.9061389 -4.0010982 4278190080
13.919945 -0.962506 -2.387507 4278190080
15.579555 -3.207849 -3.743417 4278190080
-2.9163401 -5.0031152 -4.57798 4278190080
-2.933028 -2.3616171 -3.7768149 4278190080
-2.6034219 -1.458551 -3.0476179 4278190080
-1.786122 -1.8840359 -3.0794389 4278190080
-2.7819459 -0.493251 -1.853724 4278190080
-1.850176 -3.671932 -4.1369972 4278190080
1.7282929 -5.1039281 -4.1518741 4278190080
-0.123914 -3.4293571 -3.81249 4278190080
-0.91824597 -1.127447 -2.036309 4278190080
7.9335818 -10.766894 0.087419003 4278190080
8.9205656 -9.30233 -2.5162711 4278190080
10.755309 -10.119392 -0.77690202 4278190080
8.4350948 -6.8507142 -4.4588132 4278190080
10.369308 -7.8352032 -3.596184 4278190080
11.173236 -8.8307409 -2.5197339 4278190080
12.156309 -9.6660004 -1.2280411 4278190080
12.930945 0.71487802 1.7665091 4278190080
11.316131 0.144547 2.484226 4278190080
13.026291 0.597278 2.54458 4278190080
13.670184 0.45793399 2.998409 4278190080
